# .PCD v0.7 - Point Cloud Data file format
VERSION 0.7
FIELDS x y z intensity
SIZE 4 4 4 4
TYPE F F F F
COUNT 1 1 1 1
WIDTH 1472
HEIGHT 1
VIEWPOINT 0 0 0 1 0 0 0
POINTS 1472
DATA ascii
128.91301 7.0077858 7.4625092 16
124.27994 12.224877 7.1578245 5
124.51416 12.624125 6.9803109 26
139.78212 15.784474 5.747231 23
139.9565 16.301338 5.7170272 19
139.48898 15.975592 5.6600165 15
139.11436 18.273048 5.3740478 13
139.44875 21.527044 5.0034685 5
131.08447 7.2267694 7.4331446 4
130.88324 7.204196 7.462482 16
130.66124 7.2649732 7.460186 15
130.39937 7.2307248 7.5044575 5
129.13885 7.4166689 7.6017656 9
128.59138 7.3622646 7.7157173 2
127.99722 7.4281106 7.7980452 3
132.24371 46.580612 2.0346491 16
131.3651 47.423443 2.0344214 17
140.03227 16.695154 5.6873093 13
139.27832 20.98982 5.3391113 10
138.6899 21.75095 5.2635565 12
129.9615 6.3947268 7.9106627 12
129.75246 6.5001984 7.8936787 10
129.31509 6.1877642 8.0853386 16
123.33929 -2.8885994 9.7154694 28
122.37652 14.533143 7.3028498 24
130.66991 48.534451 2.0073829 18
129.3255 49.668728 2.0237226 19
128.23787 51.027935 2.0117505 20
139.34326 21.518475 5.3530741 29
139.0425 21.529316 5.3089943 58
142.5387 36.345482 3.1544397 44
141.83542 22.320044 5.2927809 15
141.57414 22.551487 5.2537956 1
144.72571 36.404781 3.1582198 34
144.54333 37.297379 3.1143591 36
146.30536 28.074799 4.3788538 27
142.7751 21.730923 5.4408455 4
143.56186 25.267323 4.9045382 22
123.31528 -2.9295483 10.479823 17
142.464 36.22261 3.9954569 29
143.88556 21.514912 6.1126699 18
143.52142 21.690744 6.0416327 22
122.73698 -4.0112858 11.692654 11
148.19838 32.21854 5.1420574 27
147.60591 32.541153 5.0919361 20
147.18877 32.805202 5.058435 6
142.68335 28.604134 6.0191727 7
141.89989 28.931074 5.9522552 11
141.17383 29.524307 5.9185023 16
143.23019 28.68454 6.0853539 10
143.5108 57.727016 2.3360677 30
141.24286 58.782707 2.3685131 31
144.75342 46.813812 3.9131842 24
139.4955 60.462044 2.3789358 33
139.90932 33.899311 6.1697845 10
142.88742 33.700424 6.3477268 8
137.36246 65.470467 2.3190789 42
134.33269 71.426666 2.2999086 42
139.95383 45.576103 6.1716938 49
159.31068 52.747929 4.1283975 23
158.22278 53.438267 4.0728064 23
157.00113 54.806976 4.0046887 24
161.18338 52.775009 4.2009797 25
156.68329 56.471439 3.9639935 25
155.72617 57.448238 3.9253054 25
157.31282 47.951157 5.6504016 19
150.50226 69.261414 3.7850566 27
149.74254 70.714256 3.7869868 27
157.78156 51.101254 7.2437868 24
140.76297 87.027771 4.0540996 50
135.87408 89.132805 12.116447 53
93.896362 21.365656 1.2847991 18
96.659668 22.561209 1.3144054 24
104.00355 16.829144 1.3436213 20
100.85831 23.872234 1.3891325 26
105.53622 17.941837 1.3934956 18
104.9621 24.70998 1.4890087 20
103.99325 31.081078 1.5090892 20
109.26945 20.234354 1.4966421 19
107.58578 25.633537 1.4710689 34
107.13387 31.070385 1.5100851 22
114.78237 26.444714 1.5912676 24
115.26648 29.945183 1.6359386 21
119.46381 24.573061 1.5247734 20
121.23692 24.92255 1.5095735 19
113.42869 40.046761 1.6443038 18
122.30524 24.855524 1.5558832 16
120.16828 26.726118 1.6039209 20
122.34821 26.754807 1.5731044 16
120.37056 31.756027 1.7506633 25
118.60526 36.68404 1.7371192 19
123.05894 28.401686 1.6834345 16
117.80268 -10.934876 5.7764707 7
125.67986 22.777069 2.1766424 19
125.19002 22.903004 2.136878 19
125.67049 24.318129 2.1237419 15
127.5403 -3.2222013 3.89396 15
126.26151 -3.2642012 4.0576329 14
125.74925 -3.2956419 4.120162 11
130.28905 7.5278206 2.8309927 1
126.3287 25.693314 2.1324093 6
125.9596 32.425602 1.6915479 23
124.47929 36.586914 1.8549237 19
131.41656 8.8143845 2.9395516 20
131.03893 8.4040775 2.910254 20
127.34144 26.783318 2.1993811 27
125.50801 35.884186 1.8211327 30
126.14003 -3.4794798 4.7758422 24
131.44139 8.7207527 3.1767838 13
131.7796 9.5815725 3.0364308 16
128.21907 28.338833 2.2065108 13
133.63144 3.8107195 3.33323 19
130.29778 3.0078878 3.8193688 7
132.5553 10.016455 2.992913 21
130.44865 6.1288271 3.6048381 20
132.08122 9.8987064 3.0514522 26
131.60971 8.9837646 3.1941938 23
131.87 9.5057383 3.2379704 13
124.21474 42.454735 1.9099245 22
133.13148 10.889143 3.0471182 24
132.92601 11.115473 3.1338134 14
132.09053 9.8011475 3.2502995 25
116.44757 -10.11477 7.0152411 17
130.38725 19.883505 2.9524217 19
130.24223 19.834671 2.9790328 7
130.32034 25.197666 2.5403552 36
129.83148 28.757626 2.3587892 20
129.32266 29.871046 2.2507458 7
120.74181 14.363216 4.7630224 16
134.02638 11.973997 2.9920399 12
134.13152 12.117154 3.0185246 16
134.28891 12.360786 2.9651778 18
133.72021 11.619874 3.0444489 13
133.91359 11.939646 3.0496855 13
133.95195 12.323891 3.07161 18
134.1076 12.342087 3.0624316 27
134.22562 12.66651 3.0315094 30
133.36508 11.515377 3.2783251 21
133.49413 11.680935 3.1122241 24
133.74687 12.114556 3.1252367 24
134.20151 12.864866 3.068058 12
132.54832 9.8843708 3.4013824 7
133.11551 11.55219 3.1766005 15
124.03009 -4.4613409 5.8177714 10
130.36226 19.87368 3.1266134 22
130.24722 19.795513 3.1594355 18
130.4743 27.492535 2.4699192 21
130.6962 32.068756 2.2348437 6
135.01248 13.104008 3.095665 13
134.61568 12.576585 3.1907306 23
135.16336 13.701899 2.9991231 22
135.29881 13.858187 3.02404 20
131.02341 5.9114752 4.2123475 5
132.99973 10.091375 3.5530133 5
134.51987 13.472829 3.0244699 32
134.74731 13.806299 3.0931396 28
132.80461 10.254946 3.6020069 5
133.42085 11.223735 3.395946 36
134.23445 13.223915 3.1043496 23
131.58965 8.0428677 3.8835645 15
133.24419 11.342934 3.4465871 15
133.71718 12.591567 3.3500853 34
133.10564 11.5684 3.34272 10
130.24864 6.0429964 4.3284359 7
129.34131 4.5743713 4.4370632 10
129.0416 4.3694754 4.4761806 8
130.32497 19.84692 3.3034697 15
130.19336 19.80574 3.3265967 8
131.66418 28.927628 2.4934056 28
123.60072 14.115209 4.6496916 9
135.28619 13.640886 3.1676068 8
135.49553 13.709624 3.0997581 15
135.59216 14.152537 3.0658128 16
135.92593 14.596917 3.0913284 17
134.63525 12.525193 3.3338034 23
135.08116 13.618771 3.0951118 24
133.33702 10.455333 3.7169313 31
135.15723 14.132637 3.0805864 32
135.47298 14.610667 3.0973856 20
134.4631 12.911303 3.263391 26
134.54262 13.148139 3.2540801 16
134.64706 13.618126 3.2460489 25
130.17267 19.784981 3.4971886 10
130.29179 19.84845 3.470048 11
123.05128 13.759508 5.0202503 9
121.82114 15.317819 5.0252461 3
130.34167 41.389599 1.9459281 24
129.74364 42.149776 1.9751699 19
133.84839 4.921339 4.1326447 34
133.51868 4.4863129 4.1954775 31
135.57071 14.036792 3.2184732 23
135.90707 14.820041 3.0868502 14
134.56929 12.471861 3.5008526 27
135.3261 14.118717 3.4221573 32
135.46201 14.32331 3.243623 14
135.64398 14.384165 3.186234 14
135.73492 14.89563 3.2738214 10
131.62279 6.5188465 4.4598083 22
135.46687 14.621174 3.2966819 17
131.34776 6.6804619 4.4995012 16
133.37038 10.531164 3.907115 16
134.45135 12.796579 3.5381668 56
134.44878 13.181217 3.5449922 1
130.37828 7.5309887 4.6306887 11
129.98576 7.5316696 4.6892662 20
134.30965 22.641396 2.8562465 23
130.14148 19.747147 3.6696889 1
130.25691 19.820288 3.6417124 12
133.74539 28.193367 2.6637211 21
133.09006 31.007744 2.4997201 13
120.8979 15.502697 5.4844179 48
135.13565 9.3200912 3.8215909 18
136.77742 15.649503 3.2718067 36
136.74025 16.057941 3.0803154 20
135.78375 14.467938 3.4244165 11
136.29932 15.596331 3.223074 27
136.62874 16.031038 3.2716556 30
137.07295 16.824512 3.1167698 29
136.25423 15.90259 3.2096188 17
134.73885 13.036816 3.6017973 2
135.68738 14.948621 3.4164121 13
133.31371 10.496079 4.1092377 23
134.69257 13.503684 3.7282524 10
130.66565 7.932591 4.5791688 16
134.81915 24.352476 2.849766 29
134.38707 25.701424 2.7956715 30
116.10242 -10.045173 8.1434088 16
130.1506 19.697557 3.8358104 21
130.08603 19.755699 3.994621 5
122.71935 14.183007 5.3645353 15
122.42458 14.759541 5.3616824 28
122.30401 15.232454 5.3440475 34
136.05647 9.4132404 3.8538814 24
136.16226 9.7675247 3.8098578 25
137.77864 13.194 3.4745488 5
135.3295 8.7338619 4.0754223 15
133.78963 5.9100876 4.4777985 10
135.74263 11.370933 3.7861166 15
135.57288 11.843181 3.7880516 33
137.74562 17.634235 3.1236629 22
138.00827 17.903717 3.0597577 22
135.68747 13.667609 3.7866113 18
135.51881 13.621603 3.6772287 16
135.65578 13.864402 3.7745566 9
136.68327 16.06925 3.4196177 10
136.78384 16.237293 3.3898563 7
136.89575 16.414103 3.3575385 19
135.871 15.106968 3.4979053 32
133.53008 10.51856 4.2658305 20
132.26337 8.732255 4.5663524 2
132.02023 8.8448906 4.598865 8
131.17882 7.9443884 4.7820668 6
129.11639 4.7315931 5.2851415 10
130.4325 7.4623556 4.9268103 12
128.79128 4.6148396 5.3428621 3
130.24825 7.5801773 4.9494414 9
127.37545 3.4412708 5.6305919 10
127.03925 3.709444 5.6684647 14
125.71087 3.5472565 5.8852844 10
135.7235 27.056145 2.8344536 27
135.58672 28.25499 2.7803946 25
135.45052 29.414915 2.7288482 20
130.0602 19.739254 4.1595669 6
123.44758 13.682915 5.6328759 13
122.51623 14.722885 5.7013912 9
121.41144 15.092275 5.8399835 10
121.6025 15.477178 5.7846441 13
121.53168 16.148802 5.7473798 16
136.23186 7.1848497 4.3531342 26
135.8018 9.0437145 4.2537789 18
135.95702 9.4587736 4.1653175 16.5
136.07967 9.8750782 4.0716891 22
136.30009 10.064795 4.0147834 24
137.5901 13.225097 3.7162893 25
137.60165 13.466423 3.6902776 11
136.76912 12.239378 3.9367685 22
136.13997 11.526316 3.9048681 18
136.84938 12.712158 3.8729444 13
136.04552 11.800275 3.8956306 21
136.22591 12.022081 3.8439007 20
135.6488 11.253758 4.0161095 3
135.83072 11.639917 3.9479632 13
138.52113 18.367563 3.1835239 30
138.84575 18.801485 3.1142497 25
138.01299 17.500885 3.3051209 21
138.85818 19.449371 3.0763535 27
135.80858 13.802618 3.9008651 8
136.83206 16.414114 3.5348778 4
133.5571 10.500739 4.4569488 15
133.25529 10.576683 4.4962163 16
130.95497 6.492981 5.2325602 10
132.14816 9.2002144 4.7943406 2
132.34349 9.6146622 4.7256694 13
130.371 6.8795671 5.2940979 8
130.38591 19.297611 4.2884073 12
130.08366 19.647034 4.3203101 11
135.17064 31.597202 2.6362066 24
134.96831 33.140644 2.5716515 21
132.31927 47.841118 2.0882285 24
136.26517 10.072556 4.2704487 32
135.27106 9.402791 4.5515189 12
136.78467 12.632068 4.0883908 11
136.82512 12.766921 4.0663958 16
135.72954 11.810542 4.1392379 7
134.31389 9.3704643 4.6846495 7
136.56525 14.938134 3.8459165 23
135.83867 13.875998 4.0347257 6
134.92909 13.395309 4.3286219 15
135.0338 13.80684 4.2541323 9
133.41873 11.50646 4.7074318 10
133.61868 11.819748 4.6320386 12
133.08786 11.230846 4.6295471 4
129.10123 3.3695736 5.8205128 12
129.22147 5.5392532 5.6062975 7
137.72339 27.549332 2.9141028 22
130.827 19.311953 4.4752402 7
130.48656 19.246857 4.4101086 4
130.70193 20.371948 4.3314924 38
122.89438 13.819553 6.0498252 8
122.89581 14.093089 6.0292015 19
122.7888 15.121877 5.9736347 21
120.16577 15.524412 6.4283838 2
139.5813 12.733379 3.7782705 18
135.96288 8.7753582 4.5364699 19
136.38669 9.6335917 4.5722518 26
136.22626 11.046785 4.3784041 23
136.60667 11.592443 4.2512336 11
137.44678 13.403818 4.1253252 7
132.80038 4.8828392 5.472477 10
140.31017 21.239027 3.1277056 33
140.5873 21.767223 3.0812495 29
138.3356 17.422808 3.7145309 29
136.57256 14.734885 4.0234222 24
136.57553 14.92448 4.1595559 26
135.12901 13.453215 4.4344563 12
135.23819 13.937901 4.3439217 5
133.61748 11.222734 4.7259746 16
132.92676 10.571318 4.9266224 6
133.28448 11.407077 4.7414088 11
133.81398 12.442554 4.645865 7
133.99069 12.507137 4.7519155 12
133.92136 12.789564 4.6970739 19
133.55199 12.305882 4.699719 16
133.77002 12.583883 4.7539248 17
130.20247 6.8074484 5.6608181 5
130.5112 7.209754 5.5567532 20
131.76744 9.6748104 5.2565651 6
129.58072 5.842227 5.890542 10
137.51553 28.198641 2.9256148 21
137.49745 28.906666 2.9052908 16
137.54625 29.852049 2.8666983 21
131.77344 18.07 4.6961875 1
131.64299 18.829929 4.6392503 9
137.50838 32.461136 2.7897735 16
131.00305 19.202013 4.6971011 15
130.73547 19.433918 4.6344929 8
131.08479 20.461941 4.5963473 11
130.83514 20.443928 4.5618677 6
129.2657 17.575533 5.1113558 19
130.12653 19.287813 4.7715545 8
130.23407 19.884922 4.7626429 12
129.38658 20.011883 4.7847247 2
128.54932 19.796124 4.9780884 8
128.49092 20.059807 4.9878726 1
123.51518 14.542928 6.2030048 15
123.60823 15.114592 6.138124 20
139.34669 12.81676 4.0661011 36
138.29654 12.185843 4.2293253 11
139.84662 16.667376 3.6630759 24
136.09436 9.1261396 4.6928401 12
136.20885 9.2940845 4.7161794 12
136.47911 11.111011 4.5628662 17
136.23874 11.029757 4.6023726 22
135.32338 9.5499086 4.7760668 7
139.50322 20.018202 3.5516918 44
135.7021 13.708959 4.5032506 11
135.82512 13.941486 4.4600039 11
135.38739 14.001271 4.4560699 7
135.56955 14.13953 4.5629134 8
134.73752 12.956919 4.6960897 3
135.33144 13.878361 4.6107974 8
135.33449 14.123652 4.5617614 7
134.25502 12.545497 4.7237902 6
134.57974 13.003227 4.8291578 12
133.24438 10.520919 5.084115 18
134.16571 12.58589 4.8289671 7
131.03049 7.3325024 5.7630315 11
132.75322 10.909052 5.0774579 6
130.5798 7.354167 5.840209 6
132.13564 10.644415 5.2271032 12
132.11295 18.681387 4.6302266 32
131.81743 18.333572 4.7336926 39
132.01485 18.708101 4.7596245 11
131.50403 18.477629 4.8359222 22
131.64464 18.88026 4.7580762 9
131.48732 18.955404 4.8054266 13
130.00807 17.1092 5.1788874 2
130.08846 17.380642 5.1630273 12
129.86841 17.421608 5.1424971 25
130.94374 19.834206 4.754415 11
131.1451 20.418505 4.7517514 12
129.74168 17.963791 5.1573272 3
130.20309 19.18767 4.8938065 12
129.31519 17.625177 5.2266645 16
129.47711 17.848629 5.1780195 7
128.97646 17.547464 5.3433685 1
115.52677 -10.068389 9.3390141 22
128.76311 19.83103 5.1205893 7
128.25902 19.68716 5.2498236 1
123.43083 14.33893 6.2378211 10
121.20943 15.894116 6.610363 16
137.58482 10.502704 4.5558453 12
136.83107 9.7156754 4.7729349 16
139.80579 15.917191 3.9848814 15
137.03574 10.810497 4.8064051 8
136.49176 9.8340292 4.7899709 18
136.25548 10.972963 4.8367739 24
136.45332 11.10647 4.793088 18
135.7269 10.064735 4.8950276 26
132.74088 4.931716 5.8684359 14
137.65674 15.81173 4.2379894 9
138.75237 17.953829 3.9047303 5
140.53531 21.710003 3.4476376 42
136.61153 14.718411 4.5013127 29
136.52158 14.984937 4.4628987 30
135.84152 14.05665 4.7281065 13
135.93002 14.217305 4.5570397 30
135.66994 14.363935 4.6588521 9
134.41183 12.327759 5.0594406 24
134.8345 13.059244 4.8053303 5
134.94186 13.177556 4.8411822 7.5
133.41934 10.637619 5.2322874 18
134.09012 12.09171 5.1399751 9
134.32634 12.523643 4.9747472 10
134.5154 12.715103 4.9098191 11
133.57452 11.417875 5.2045326 12
134.10315 12.527766 5.0165973 16
134.29327 12.649974 5.08284 1
133.40465 11.373928 5.2345901 10
134.26125 13.001293 4.9748359 4
133.53448 11.913007 5.2326508 23
133.15491 11.858057 5.2876472 21
133.36455 12.037144 5.2113409 19
132.19386 10.008249 5.5592937 6
132.90819 11.960882 5.2856393 5
133.25343 12.302123 5.2827144 7
140.22653 27.214405 3.0313952 33
140.1945 27.954197 3.02966 28
129.13968 5.843853 6.3502064 18
129.68062 6.7020893 6.1111917 3
140.1904 28.814215 3.0243008 22
129.96379 17.812897 5.2495227 11
130.48518 18.813639 5.1891837 15
130.08958 18.124226 5.2343564 23
129.21519 17.387312 5.3906012 3
129.86121 18.693699 5.2414527 0
129.12737 17.531532 5.4287033 21
129.67442 18.731565 5.307323 16
128.47896 19.842331 5.396471 8
123.02708 14.859266 6.6284695 14
123.10694 15.391657 6.5657072 31
140.62967 13.075169 4.258544 9
139.4976 12.040972 4.4477034 20
140.41634 14.510356 4.0971575 9
140.60536 14.976289 4.0456743 9
138.10258 10.620638 4.7666078 22
137.54826 10.674102 4.7949386 21
139.92856 18.936642 3.8395236 23
139.80331 19.225441 3.8393073 26
137.70107 15.62107 4.4467459 18
137.60155 15.807364 4.4265232 16
139.46796 20.124191 3.8479695 12
136.61015 14.67532 4.6682267 22
136.65442 14.961796 4.6310349 24
136.99461 16.112377 4.5450563 18
137.34003 16.99819 4.5346718 7
137.16621 16.697813 4.5298581 22
134.61079 12.060366 5.2915945 24
134.09036 11.563696 5.2917733 1
134.30301 12.170168 5.2646146 15
134.08368 12.097031 5.2955446 11
132.65463 9.9820156 5.7113724 16
132.4415 10.216429 5.6805959 7
132.82111 11.681442 5.5453253 5
133.14308 12.228683 5.3184066 5
132.72426 11.635683 5.5744829 5
131.58025 10.40217 5.7819839 14
129.86038 7.3238392 6.3045816 27
128.69965 5.3432684 6.5140791 20
129.66301 7.4146805 6.3269935 27
140.31862 30.459356 2.9983602 23
140.37317 32.249306 2.984688 19
130.46367 19.555544 5.3109074 1
129.93466 19.387827 5.453506 1
129.02155 19.857838 5.4366264 1
110.21371 94.241386 3.0417428 63
142.27982 15.05172 3.9952788 13
140.65729 14.5899 4.3817844 21
139.12305 12.961511 4.5911417 8
139.86743 15.546446 4.2815127 20
139.84312 18.198505 4.1405716 28
139.4894 18.674379 4.1337709 18
142.39508 24.49649 3.2765555 42
137.57922 15.912049 4.6059394 14.5
134.62196 11.866268 5.3508735 15
133.84755 11.471725 5.5133257 3
130.70401 6.3573666 6.3306351 17
133.14078 11.505066 5.5671248 20
130.42554 6.4954224 6.3558388 12
132.41753 10.876583 5.8870158 22
130.08495 6.5065498 6.4191971 12
131.92555 10.595604 5.8664937 15
131.84972 10.945808 5.9651108 15
131.68181 10.728754 5.871891 18
131.73236 11.137088 5.9217844 5
129.70538 8.0321693 6.5079188 15
131.06516 11.147264 6.0686312 9
140.74004 34.57785 2.9277816 23
132.20338 20.849508 5.119791 7
132.37671 20.994347 5.1148958 5
137.91806 51.15517 2.1517696 13
141.98825 15.037892 4.3477654 18
138.96559 10.731092 4.9937892 21
138.64352 10.624313 5.0262232 25
138.00847 10.152782 5.1534796 27
137.83984 11.360378 5.1614933 13
139.72066 18.025402 4.4175329 60
136.64702 11.81543 5.2876692 5
139.70186 18.670845 4.412756 75
143.88251 27.648525 3.1508858 31
141.71507 23.438374 3.7647109 14
140.10193 20.749228 4.1441665 4
138.55615 17.688053 4.6125436 14
138.59995 17.96209 4.6153789 11
134.31007 11.049551 5.6228428 15
131.25565 6.6639452 6.5126514 12
130.3284 7.1006527 6.5903411 12
129.79428 7.6139755 6.5839505 15
131.18065 10.770386 6.170681 13
129.42091 7.9283972 6.5946217 9
130.64342 10.890693 6.2632303 13
138.3064 10.166941 5.4369135 59
140.44211 14.650589 4.6657171 37
140.63852 16.429737 4.5177913 6
137.61591 11.504098 5.3815942 1
144.22908 28.871563 3.1278934 41
140.08154 20.502193 4.4589324 21
143.95628 29.489452 3.1628029 25
139.69328 20.987495 4.4769444 32
144.14613 30.40917 3.1560307 35
129.83768 8.2322865 6.7391257 4
129.56923 8.2463226 6.798645 4
138.2516 10.619103 5.6198554 22
141.17413 20.708988 4.4820538 23
144.40407 31.47604 3.1456995 36
130.10628 6.6449299 7.1014438 15
129.63626 6.5669565 7.2262459 9
128.64763 6.8445549 7.3874183 9
123.68525 -2.6516886 8.7572098 8
128.28566 7.1285391 7.4055343 4
142.84366 23.461807 4.1583672 36
144.72516 34.005276 3.1582761 40
130.36369 6.0452099 7.2080793 19
130.85257 7.0418282 7.1838093 17
129.78279 6.3273134 7.2572498 4
128.60559 7.6723642 7.5384974 22
142.05327 14.859831 5.0611272 21
144.84311 35.442585 3.1762064 32
144.99332 36.611309 3.1858692 33
129.16811 6.865963 7.6283665 9
128.65685 7.0343132 7.711133 28
127.86821 7.4330912 7.8136468 7
141.41228 21.323238 4.8815475 21
141.26366 21.615154 4.8929949 26
128.21936 7.8226132 7.9679122 9
145.0244 25.706066 4.1773281 20
144.93739 26.349762 4.2063494 9
127.90609 7.7911625 8.074379 22
142.70963 23.475996 5.0713911 18
122.57452 -3.0989523 9.8464127 20
128.50124 5.9282551 8.5064764 14
143.73727 59.410282 2.5163252 30
121.08891 90.771988 4.0039864 55
124.2899 -2.7288485 10.160532 31
146.31555 27.765224 4.8672791 24
150.5815 37.366627 3.5819263 24
151.12537 39.273235 3.6168928 27
140.86401 33.328697 5.6652107 13
143.14816 33.132504 5.4782028 13
139.03874 35.03862 6.0623403 12
148.31868 32.218422 5.1740274 25
121.94359 -3.4837046 11.742123 19
121.57063 -3.0280619 11.73003 18
142.73158 33.607048 6.291203 13
139.9622 45.594242 6.3283205 22
140.95732 44.848675 8.2826271 31
123.32464 91.515984 8.9888172 59
158.43962 51.969391 6.6985512 24
157.78487 53.433998 6.8901553 24
135.24939 89.221077 14.581501 57
105.42982 31.62973 1.5293241 26
113.15393 30.821569 1.5988412 21
114.54658 30.476442 1.6394362 25
113.40219 35.002441 1.613955 30
116.19125 33.799149 1.6687803 33
119.35085 29.480602 1.6979902 21
118.93803 36.129284 1.7455428 27
124.30701 35.723976 1.8396697 20
123.57591 40.823002 1.8854921 25
126.07066 31.889042 1.6891289 16
126.56876 25.971416 2.1320317 6
126.71922 33.978355 1.7601662 19
125.51486 38.629478 1.8776176 27
126.84443 37.418228 1.8181381 25
126.7543 -3.7761459 3.7888503 19
124.88947 -3.8024654 4.1596251 12
129.12582 5.8116541 2.8146682 9
127.35915 27.059431 2.1716785 15
127.80676 36.313408 1.8111739 32
129.63275 6.510272 2.8537426 12
128.18542 28.200743 2.2082505 21
128.64154 35.698685 1.7435808 18
128.05806 2.3630428 3.4619441 3
128.81795 27.25206 2.3260443 25
128.01933 40.539288 1.9210622 22
129.35184 28.898071 2.3035498 22
126.12508 -3.4115734 4.7025003 17
125.29892 -3.3676853 4.8775969 13
131.17734 8.7655849 2.9835873 23
131.41309 8.8504314 2.9517245 23
131.75865 9.8510237 2.813777 22
131.79172 9.3979416 2.9762533 22
130.70819 29.479454 2.3828156 23
131.92155 9.3702374 3.2132018 5
132.2626 10.171463 3.0203733 33
132.53348 10.835659 2.8663568 18
132.69812 11.045317 2.8746767 15
120.99046 15.801595 5.480444 31
133.1893 11.617419 2.9981611 16
132.24352 10.116911 3.2570286 10
133.02536 11.524006 2.9015172 17
120.43739 -5.267622 6.6815434 13
128.71928 9.1821308 4.0707994 5
122.31389 15.270788 5.352406 11
133.3963 4.1861315 3.4067521 18
133.6078 11.480484 3.0613964 18
131.48785 7.9905529 3.7308095 19
133.41257 11.296144 3.0784822 19
133.47423 11.705845 3.1338329 13
134.01216 12.499664 2.9583352 19.5
129.05688 4.3392181 4.4158807 6
132.45822 10.190596 3.4561908 1
133.18704 11.403907 3.1511176 15
133.84854 12.422079 2.9912267 21
132.48947 10.491537 3.258409 9
130.23979 19.812756 3.5049438 13
122.45433 14.735042 5.7283535 22
121.70135 15.592573 5.8090677 16
121.53195 16.175474 5.8100543 10
134.03917 11.962795 3.027298 16
134.11237 12.374001 3.0742598 18
133.35179 11.401096 3.3071213 12
133.66466 11.91432 3.1208539 19
134.63104 13.34929 2.9148088 22
133.08438 11.346137 3.361094 14
134.31569 13.265988 3.0105941 17
130.16402 19.721792 3.7542353 12
130.27388 19.84413 3.717968 18
133.51526 30.894543 2.5311227 21
133.10818 32.9702 2.4132748 21
132.64211 3.8114758 4.0368071 25
134.62962 12.722788 3.1348484 17
135.1757 13.62411 3.0526388 13
135.35875 13.976764 3.017899 24
134.05899 12.110495 3.3975289 2
134.26326 12.411892 3.2049487 13
134.42255 12.839682 3.2115641 11
134.56805 13.131052 3.201719 24
134.8436 13.577784 3.0196538 20
134.39221 13.172972 3.115212 23
134.65575 13.36318 3.05583 29
134.98085 13.903841 3.010905 19
135.05392 14.155701 3.0123525 18
116.13171 -10.79974 8.7283134 8
134.51704 21.695984 2.841047 43
130.33328 19.889217 3.9225807 33
130.15643 19.71562 3.9762585 25
122.58595 15.062946 6.0732403 28
120.30473 15.468493 6.4710798 43
120.54303 15.88699 6.410017 9
133.41762 45.950539 2.0632036 22
132.07587 6.5576944 4.2070146 25
131.48994 6.3230104 4.3427787 7
131.85864 6.7891855 4.2614498 26
133.51158 10.368988 3.8178141 18
135.49896 13.610647 3.091886 20
135.52003 13.993608 3.1055598 26
135.81706 14.527896 3.022682 22
135.82616 14.84304 3.0269928 19
133.29118 10.464312 3.7364571 15
134.38495 12.585818 3.5145741 27
135.01654 13.753058 3.25859 26
135.28598 14.062914 3.1884851 10.5
135.4769 14.620218 3.1472659 33
134.68086 13.608325 3.2189627 23
134.86249 13.736172 3.1714818 25
130.89754 7.5853109 4.4949098 1
130.61775 7.8999081 4.562181 13
129.89804 7.372982 4.7190943 16
134.8943 24.570671 2.8488579 23
130.55571 19.421032 4.10286 14
130.51552 20.119314 4.1540275 18
130.09386 19.72504 4.1298852 8
130.36447 20.083105 4.0350604 0
134.90327 9.2622089 3.7428107 18
135.98868 14.394779 3.1051912 21
135.54077 14.088749 3.3149233 21.5
135.52815 14.252292 3.2516675 14
136.06592 14.919582 3.218699 24
136.54842 15.679033 3.0470779 21
133.23605 10.45026 3.9747875 8
135.51762 14.567549 3.2602701 25
135.87917 14.976083 3.1430395 20
136.07472 15.32341 3.2056332 22
136.47992 16.143898 3.0470893 16
128.89984 4.6701126 5.3719158 3
127.51453 3.5765781 5.7231188 13
127.1112 3.8660994 5.8093982 13
126.60683 3.6018476 5.9331064 6
130.86322 19.39209 4.2396131 4
130.58374 19.30187 4.3022079 9
130.41393 19.289707 4.2711964 4
135.46384 28.070696 2.7783284 24
130.18799 19.201712 4.4517407 1
130.68211 20.131905 4.2677369 7
134.95351 32.863396 2.5783234 13
123.56004 14.531029 6.2634592 6
123.77618 14.78499 6.2055111 9
121.34858 15.582314 6.6986027 3
134.50053 9.9343414 3.8287721 5
136.58734 15.30455 3.1973166 20
136.73732 15.858516 3.1292646 21
133.465 10.417328 4.0547986 17
135.87085 14.423883 3.4235876 11
136.13577 15.005641 3.3321705 15
136.74789 15.999966 3.1188872 18
133.24619 10.402935 4.198175 5
135.60851 14.583474 3.3603883 10
136.13269 15.301847 3.3207171 11
135.63226 14.885303 3.3493905 15
131.88492 8.999815 4.5605068 12
131.13731 7.7938576 4.7676902 3
130.59985 7.8149776 4.8946171 13
130.28151 7.7219372 4.9719791 9
135.99689 24.946043 2.861187 25
130.80734 19.310612 4.4389172 2
130.51968 19.233814 4.5082836 5
130.80667 20.397949 4.3689194 39
130.34541 20.224638 4.4843941 26
128.51787 19.707029 4.9241247 11
128.87358 20.054585 4.8242927 21
135.9989 8.5173349 3.8095231 6
136.05327 9.1594639 3.7688787 25
136.29462 9.744133 3.6885824 9
134.84584 8.9685459 4.0436664 6
135.82512 11.273419 3.7244201 5
135.66031 11.857711 3.734709 30
133.02081 8.4384251 4.5962625 22
135.42937 12.558397 3.7544343 15
135.44756 13.20746 3.7195528 16
135.38905 13.136327 3.7363391 6
135.70963 13.794965 3.7758558 25
136.87653 15.915631 3.2388463 15
137.41205 16.628428 3.2343049 18
137.47574 17.168148 3.0201197 25
136.5974 15.763528 3.3139741 29
136.86215 16.213018 3.3707514 23
137.21057 16.815142 3.2633471 16
137.46915 17.16502 3.1906943 40
137.59312 17.366062 3.154103 12
131.23659 6.9227171 5.1222057 8
130.95467 6.5316162 5.2145476 7
132.57439 9.723175 4.6286583 17
133.21817 10.525963 4.4242878 6
132.16327 9.1415434 4.7636137 18
132.41362 9.795229 4.6636114 15
130.5126 6.8100719 5.3066788 6
128.95024 5.7529335 5.7540264 19
137.577 23.604568 2.8819528 22
136.86986 27.798275 2.8932157 27
136.88098 29.158447 2.8465893 25
129.51703 17.827026 5.0760083 4
130.74564 20.03093 4.5496049 15
130.85123 20.064501 4.5224557 12
131.15759 20.398638 4.5841794 28
129.28244 17.556765 5.1535625 27
130.23401 19.251944 4.8398995 8
130.20563 19.379177 4.7761087 25.5
130.95041 20.421047 4.4860449 3
130.87167 20.552956 4.6585693 1
128.95416 20.304432 4.9847703 10
128.32249 19.751791 5.1648936 11
128.16879 19.530584 5.2125797 8
123.12629 14.988975 6.7043104 24
135.93439 8.7451878 4.1182499 7
137.07359 11.690189 3.6542449 12
136.74164 12.366255 3.6713505 12
136.09007 11.776397 3.8513346 22
135.89902 11.7815 3.890626 23
138.19978 17.647032 3.2113042 21
135.70258 13.68167 3.7858846 18
137.91373 17.723469 3.2549369 27
138.25475 18.174206 3.1774368 33
133.51373 10.289301 4.5050054 24
129.15501 3.3841953 5.8431787 6
133.11266 11.26133 4.6025095 9
133.35068 11.412571 4.6422086 12
132.01778 18.668789 4.6010547 1
131.62791 18.832991 4.6790657 8.666667
131.72516 18.919014 4.6229477 22
130.08783 17.152344 5.1544876 8
129.88983 17.231041 5.1059155 9
129.93718 17.481373 5.2015476 11
130.6212 19.260675 4.9885349 15
131.36119 20.427055 4.6782899 2
129.6734 17.947487 5.157907 10
129.94443 18.215828 5.1942472 5
130.22028 19.026678 4.9790688 3
131.17308 20.409985 4.7293472 11
136.9174 30.574368 2.7929299 24
130.65187 20.62224 4.8816957 11
128.97469 19.858965 5.1819749 7
136.8757 33.627533 2.7051952 16
136.88509 12.043333 3.8854938 28
137.09987 12.758677 3.7741449 22
136.4501 11.929081 3.9775476 23
136.61996 12.005966 3.9380648 25
134.36942 9.1133957 4.6939197 4
135.91873 11.896198 4.0804362 11
136.90266 14.867422 3.7691216 7
136.5592 14.676216 3.8363442 22
137.83057 17.546267 3.4565637 13
138.43236 18.564177 3.1312256 31
138.58701 18.796482 3.0959804 25
134.95096 13.200692 4.2681317 15
134.99615 13.386814 4.3749161 8
135.23543 13.84535 4.2648339 12
133.04446 10.570839 4.9076443 36
133.2373 11.439148 4.746479 5
133.40932 11.520305 4.6947622 10
130.81378 7.4853554 5.5361853 15
133.53572 12.180744 4.6813235 16
129.73737 6.0135088 5.9507146 11
130.42334 7.1385336 5.6687088 15
133.37607 12.202932 4.7103667 1
133.51682 12.883445 4.720674 21
138.57936 25.83518 2.9732351 26
131.89618 18.070026 4.7883964 2
132.03139 18.542728 4.8213806 7
131.24335 17.573338 4.9549093 32
131.81256 18.293663 4.8214965 15.5
131.86147 18.370514 4.776072 28
132.03758 18.706322 4.6813068 20
130.77879 17.13468 5.1675291 38
130.8116 17.184914 5.1513267 20
131.11664 17.760899 5.0250387 17
131.2187 17.862268 5.0285063 12
131.80971 18.597996 4.8297477 15
131.88727 18.831038 4.7470632 13
130.72377 17.264587 5.0995841 6
130.60333 17.531128 5.2565985 29
130.1526 16.986784 5.2468157 7
130.1476 17.16176 5.3582597 4
130.47115 17.685642 5.1609211 10
129.93219 17.334787 5.3275843 3
129.95631 17.419928 5.3164468 15
129.90352 18.257936 5.3417192 23
130.00604 18.422981 5.3060904 19
130.42679 19.018291 5.1741114 23
131.37375 20.720699 4.8425803 1
129.51064 17.808558 5.3518066 15
129.70128 18.671906 5.2846761 22
135.46301 6.9200783 4.7205753 10
135.99841 9.48172 4.328548 9
136.27164 9.8928947 4.2304149 18
137.00288 12.222 4.062211 2
137.3445 13.109993 3.899864 11
135.93498 11.195374 4.3776627 5
138.30133 17.454912 3.5930486 12
136.61372 14.71355 4.0483117 21
136.98672 15.953901 3.80844 11
138.87448 19.112331 3.2660987 27
139.04105 19.562847 3.2336464 14
139.40556 20.160307 3.1729755 16
135.18796 13.595698 4.4500675 6
135.47714 13.87597 4.3633857 15
133.28114 10.590061 5.0717015 37
135.09492 13.843761 4.4138398 19
134.40929 12.93998 4.693994 4
133.9859 12.608154 4.8368816 16
132.70111 10.641245 5.2058001 3
131.88434 9.8184786 5.2984867 8
132.46918 10.874648 5.2255416 19
133.02942 11.684781 5.1341414 11
133.47549 12.504629 4.7990952 12
133.60655 12.839641 4.855267 7
132.31561 10.756039 5.2852488 6
128.76707 5.7175093 6.2302303 11
138.58006 29.003319 2.9632988 16
138.68269 30.569326 2.9410415 15
130.88972 17.666233 5.2209387 14
131.40663 18.469198 5.0636358 21
130.16003 16.939297 5.4756279 0
130.24095 17.084126 5.4319625 17
130.51414 17.557404 5.4097185 23
130.60036 17.593897 5.3662767 27
130.83656 18.398729 5.2033925 13
130.43784 17.743166 5.4574656 24
130.48552 17.878414 5.3255854 3
131.74904 20.581314 5.0288634 15
131.51099 20.841602 4.9738898 17
129.78253 19.999269 5.4682889 31
125.30578 88.936066 3.6850252 49
120.06291 90.545097 4.872612 54
136.04932 9.0155687 4.667726 10
135.48793 9.6431007 4.6801701 8
136.75911 12.704792 4.2366648 9
136.65179 14.934381 4.2371273 20
140.03964 21.339464 3.0704284 33
135.83138 13.986031 4.4488802 9
135.38646 13.661312 4.5547028 11
135.46036 14.07439 4.5928054 8
133.51025 10.675604 5.2261758 20
134.63596 12.842284 4.8337483 17
134.76514 13.058842 4.7636776 5
135.26753 13.978038 4.6282716 10.5
133.59436 11.255754 5.2095289 10
134.18048 12.471684 4.9955025 12
133.554 11.807977 5.1680574 16
134.22496 12.850988 4.8926892 11
130.90024 7.5427933 5.8530231 14
131.83646 9.2685442 5.6609764 18
133.30428 11.770468 5.2351546 34
131.47212 9.0000887 5.8035955 18
132.67526 11.362163 5.2898884 18
132.78955 11.57823 5.2161574 18
132.90103 11.974188 5.2846718 10
133.17902 12.159806 5.1705046 12
129.85091 6.8779135 6.2199926 13
131.94986 19.78883 5.1054296 2
131.81837 20.56702 5.1585283 13
131.7518 20.942749 5.0791445 23
132.00047 21.105833 5.1999445 2
130.2177 19.131721 5.5463581 5
123.1735 14.711394 7.4599962 4
135.57146 9.4262486 4.9755135 4
139.38533 15.949683 3.8117204 24
135.71286 9.9697132 4.8540707 15
137.63686 13.756835 4.1786795 26
136.64113 14.645611 4.4332066 19
135.90465 14.008099 4.5837917 21
136.14723 14.361225 4.6430087 31
136.50134 14.912519 4.5324621 33
139.52478 20.030703 3.4211836 41
139.69797 20.509979 3.4034023 26
135.91653 14.191278 4.5433302 22
134.05672 11.436415 5.2812567 7
134.93419 12.925645 4.931201 16
134.58307 12.861635 4.9915552 7
134.04163 12.028204 5.1319823 13
134.47398 12.792089 5.0257235 15
132.17487 10.15014 5.6708398 3
132.84058 11.645578 5.5745192 26
131.9463 10.314901 5.6993179 5
131.72353 10.333002 5.7575336 15
132.47789 11.888679 5.6041975 6
123.77638 -3.0639076 8.3492851 6
129.79831 7.599473 6.5027866 30
131.55424 10.506906 5.770206 16
132.03958 11.516558 5.629797 6
131.65047 10.92438 5.8858614 11
132.02824 11.737936 5.7770576 26
129.72842 7.9927549 6.4594288 32
140.5052 27.039532 3.0500257 39
132.68748 20.80624 5.1101589 18
132.1805 20.672333 5.2229967 13
132.33627 20.941708 5.2366824 13
139.13968 10.99185 4.18645 26
139.76534 12.225549 3.9389544 18
138.38542 10.629918 4.339879 29
136.43231 9.2626877 4.8588972 16
136.1265 10.19976 5.0070462 4
139.56673 16.34449 3.7715383 1
136.34813 11.098836 4.7918625 31
136.49904 11.113128 4.7687926 19
137.56674 15.937395 4.4200077 7
136.6559 14.678375 4.5792885 15
136.80974 14.998486 4.5236511 9
138.69214 18.239609 3.9498227 5
141.17352 22.668152 3.2601373 14
133.9709 10.779519 5.4663582 9
134.52335 11.783323 5.3071985 26
137.25517 16.57851 4.3490729 7
135.1637 13.287249 4.9622078 18
133.82916 11.366898 5.5455227 7
134.11482 11.88806 5.3415446 9
133.42671 11.10501 5.5813885 8
133.69626 11.54961 5.5955458 11
132.7245 10.187424 5.7654572 11
130.16638 7.4307089 6.4251022 17
132.66086 11.520433 5.6575918 7
132.60762 11.978546 5.7298951 5
131.99036 11.790642 5.9743247 18
129.3486 7.738966 6.611177 31
131.51007 11.702136 5.9487629 11
130.77666 10.861696 6.1721158 15
130.53859 10.858902 6.2505436 15
130.97258 11.339646 6.2255626 8
140.7643 28.805939 3.0443196 22
131.17563 12.150592 6.139183 18
141.12987 30.170425 3.0133052 22
139.68401 11.649288 4.3261766 12
139.28842 11.41967 4.4004107 13
138.88229 11.36639 4.4490428 22
138.55423 11.041524 4.5393267 20
140.20354 16.749519 3.964525 14
136.31746 11.024154 5.0512257 26
136.47762 11.108328 5.0128489 20
137.74054 15.623041 4.4632158 7
139.7717 19.170874 3.915139 38
142.28447 24.562195 3.1669426 49
134.18932 10.945606 5.6058874 5
134.17413 11.523963 5.6423216 15
133.68857 11.566271 5.7130919 15
133.54518 11.471714 5.6542463 13
132.92108 11.119172 5.9208269 7
133.03001 11.322016 5.8273363 11
132.7382 11.442077 5.8659954 15
129.74585 8.1256428 6.7824512 3
131.52199 11.588277 6.1909413 13
129.54953 8.3238182 6.8044577 3
131.12366 11.084661 6.2435226 11
131.33124 11.907137 6.1579046 13
139.47382 11.965309 4.5828338 19
139.60258 12.142712 4.5437503 29
140.47371 14.612835 4.1457777 32
138.64337 12.920282 4.7083025 3
137.03378 11.108591 5.204607 18
139.8302 15.908486 4.2782145 29
139.97513 17.505882 4.1821294 29
140.41301 18.398746 3.8978419 16
134.83591 11.288199 5.6207523 18
142.5157 25.159712 3.1541348 42
134.35526 11.275217 5.6956091 7
134.07445 11.297031 5.7344108 15
129.72699 6.3241539 7.1439681 13
128.6642 7.1055355 7.3179398 10
128.38533 7.1191225 7.4041095 14
130.33783 11.464081 6.6591654 14
141.64687 33.626198 3.0140834 20
139.46878 11.30022 4.7058821 6
139.08322 11.363348 4.7209282 19
139.35226 11.677862 4.6429334 19
137.93379 10.264648 5.0468535 21
140.26096 18.230654 4.1678753 27
135.68263 10.663924 5.7142992 4
139.87248 17.980627 4.4167581 9
139.71005 18.675417 4.4118862 31
140.1151 20.610867 4.2220564 11
140.08614 20.786295 4.2325006 6
143.05309 26.606449 3.1298146 43
143.4313 28.015936 3.1301069 45
140.82799 14.745649 4.4075294 15
140.70172 14.609625 4.4234886 13
139.36919 14.17124 4.7291722 22
139.73466 14.694114 4.6614747 9
139.9545 18.493048 4.4188471 10
143.53687 28.864222 3.1494761 30
128.81725 7.2737589 7.6407332 16
128.58293 7.367837 7.6983595 16
141.34259 14.19064 4.478404 15
140.42365 14.817719 4.6704545 9
140.19814 20.476381 4.5014915 11
140.10527 20.935209 4.534071 23
139.95749 21.108162 4.5476151 27
143.94243 30.327366 3.1551306 24
143.10822 17.411312 4.2199144 14
142.72987 24.209286 3.9739542 7
144.68263 32.307598 3.1389697 36
145.00804 34.309265 3.1897669 39
123.58723 -2.7317982 9.986021 30
142.86739 23.395481 4.337718 28
145.44312 36.05619 3.2145569 31
142.76971 23.526165 4.7718492 20
142.59523 36.146622 4.456037 42
128.0775 89.498299 5.6346011 50
122.26514 92.007416 7.0369701 56
141.45348 33.300365 5.0297804 16
139.01064 34.662476 5.5833325 20
143.76707 25.28545 4.9484491 26
121.63217 -3.2409077 11.55003 18
114.69179 100.3094 8.9187756 63
146.17715 28.100899 4.6187477 32
139.95775 33.932087 5.9981489 14
141.89935 30.096031 5.7378092 8
139.73586 34.393532 6.1081562 25
139.81844 34.407169 6.7851758 25
148.12543 32.293266 4.9559822 17
142.80508 33.66563 6.2951174 6
112.8197 99.97934 12.475142 63
108.09246 99.563728 13.689928 63
157.30658 47.318943 6.1374512 20
157.70602 53.550915 6.9536023 24
141.36353 87.357765 10.21348 48
138.77313 86.520401 13.226507 51
112.40201 33.431793 1.5685892 26
113.91862 36.968437 1.6354918 18
115.17091 32.515057 1.6427112 20
117.41799 35.277584 1.6716671 22
119.36813 37.632729 1.7464578 29
122.98779 34.812702 1.8217049 21
124.58359 33.840866 1.7798557 22
125.84841 30.823391 1.7228251 22
125.38539 33.476429 1.7241282 20
126.62241 32.611382 1.705411 15
126.60301 35.03418 1.7896752 22
127.30135 26.853546 2.1601357 6
126.10588 38.908539 1.8708251 28
128.04756 26.158598 2.2726436 22
128.45721 27.306713 2.2700245 25
128.6963 28.95903 2.2167377 5
129.04498 35.729855 1.7655022 29
129.33603 28.018887 2.3261223 22
127.78558 41.161598 1.9283881 22
130.15945 25.424683 2.5014491 24
130.06395 26.992861 2.4376698 30
129.81892 29.462791 2.3118105 22
130.22923 37.727615 1.8286705 16
105.42926 98.291489 4.9053469 63
131.28577 8.5856209 3.1901624 5
130.32169 24.238327 2.5349386 18
130.53246 31.229305 2.2565885 24
131.11496 41.064789 1.9292653 23
129.92973 43.317223 1.9791322 20
130.14688 5.9664478 3.9308763 2
131.82832 31.678699 2.354706 16
133.95244 11.971142 2.9663417 12
134.06717 12.120752 2.9510853 12
131.29576 7.6744099 3.7777152 7
133.53233 11.527173 3.0341322 13
133.18062 11.234934 3.098377 13
132.74232 26.165371 2.6596739 23
132.47635 29.636967 2.5013828 20
130.33734 5.9547157 4.3164015 13
134.16818 12.58128 2.994513 24
134.57478 13.511699 2.9954906 21
133.21262 11.419278 3.3529191 30
134.40764 13.29269 3.0256267 19.5
132.77214 11.093039 3.4451513 6
133.65968 12.425828 3.1502812 6
133.46677 24.619474 2.7597506 29
132.99489 28.060772 2.6077175 22
133.34137 31.350647 2.4946885 25
134.99527 13.322166 3.1441987 9
135.26256 13.544119 3.0569127 8
134.64177 13.22414 3.0971513 21
134.86542 14.011662 2.954216 22
135.52022 15.006147 2.9233537 37
134.63727 13.616945 3.1505015 11
134.70679 13.840862 3.07391 17.5
135.42363 14.964528 2.9654155 37
126.92444 2.9707899 5.5048828 3
130.1804 19.701813 3.8121209 17
130.30855 19.895287 3.8370829 40
133.79964 29.433399 2.5993779 37
132.14352 6.0400343 4.2176456 11
131.85559 6.199255 4.3104029 7
131.4816 6.5011902 4.431787 14
131.2347 6.5977964 4.5082169 9
135.50131 14.004671 3.0765858 15.5
135.80992 14.55083 3.0529742 22
135.58443 14.597763 3.148361 22
134.75349 13.629587 3.2671633 20
135.20248 14.163877 3.1338673 37
135.47873 14.619512 3.0509801 24
126.91973 2.9959173 5.6487827 2
135.05388 20.854715 2.8381953 28
134.47429 23.90472 2.8379979 26
134.77866 25.37043 2.8087556 23
134.53281 32.633224 2.5523899 13
134.82454 9.2663651 3.7561734 30
136.44173 15.166801 3.098912 19
133.43663 10.39938 3.9370499 27
136.25224 15.419519 3.1619213 18
136.58551 15.72492 3.024564 16
133.17328 10.332005 4.0192127 18
136.48555 15.997355 3.0516062 22
135.46179 14.600949 3.1989164 30
135.96562 15.461398 3.1403399 38
131.12372 7.5977163 4.5672345 6
130.7408 7.7596626 4.6829491 21
130.14006 7.4626503 4.8481088 14
135.60362 22.851416 2.8569417 22
135.49571 23.183186 2.851965 18
135.62399 25.462597 2.8457379 28
134.9911 24.593235 2.8389809 20
130.24492 19.30855 4.4034519 0
130.66505 20.148476 4.2347159 19
121.31686 15.916845 6.5731072 31
133.60959 10.209715 4.1472368 5
136.54541 15.380087 3.1983206 21
136.65314 15.450783 3.1571522 17
136.87587 16.102892 3.0420654 16
136.99359 16.56027 3.1138058 14
133.25089 10.485474 4.2601075 21
135.88007 15.054446 3.3786159 13
136.02582 15.154721 3.38938 10
136.0498 15.319293 3.2410722 23
136.74829 16.458567 3.0648308 16
132.22917 9.041853 4.5920024 25
132.04137 8.9711533 4.6503997 13
130.80052 19.360382 4.3173895 14
130.57567 19.316406 4.3554516 0
130.61229 19.964006 4.4013271 12
128.58511 20.064215 4.9470367 1
137.06253 15.950914 3.2847552 10
135.38452 13.217932 3.8788223 6
136.44287 15.316237 3.3784342 14
136.76492 16.21192 3.3444104 18
136.87724 16.412361 3.296227 16
133.4391 10.394398 4.4652858 20
136.26579 16.215961 3.366014 38
130.39238 6.8242111 5.169929 18
128.91185 5.3386679 5.6243167 15
128.51912 5.1875687 5.740653 15
136.34013 26.970768 2.8692245 29
130.91846 19.269531 4.5843163 4
130.77751 19.496815 4.659687 1
130.82053 20.100548 4.4773879 2
131.06303 20.471363 4.5233088 39
129.26201 17.584454 5.1124468 32
130.20584 19.304531 4.8073578 14
130.21696 19.414925 4.798202 24
130.16576 19.431097 4.6720643 6
130.22778 19.929037 4.6190505 20
130.27895 20.314541 4.5745029 21
130.19524 20.332092 4.7452908 32
136.08369 32.650764 2.6642954 26
123.06334 14.891438 6.6534848 14
123.11015 15.531029 6.6196575 27
135.92059 9.0123034 4.0469632 12
134.96817 8.225853 4.4157882 19
136.58549 11.713249 3.8620565 17
136.89767 12.733314 3.6559968 8
135.64711 11.272882 3.9517562 11
136.5472 14.457697 3.7356002 6
138.15758 17.336937 3.2193637 18
138.2699 17.820744 3.163136 12
135.28464 13.126398 3.9180574 10
135.73732 13.766626 3.8864255 20
137.52003 16.924622 3.2307217 31
137.9191 17.563818 3.168371 21
138.20493 18.170523 3.1550126 22
138.34486 18.380396 3.1155362 21
136.96333 16.402334 3.4779077 8.5
137.16458 16.665478 3.4762862 16
137.58206 17.371502 3.1812189 26
137.91287 17.937098 3.0642185 28
138.58965 19.122301 3.032264 17
136.76921 16.536144 3.443707 6
134.87202 13.299923 4.2022381 3
132.49741 9.5943832 4.8003111 3
133.0295 11.048512 4.5671363 3
133.5808 12.005362 4.554698 10
135.34982 15.069812 3.8580053 7
130.72614 7.2547827 5.4588737 17
132.90849 11.189019 4.5993066 2
133.43309 12.140028 4.5912476 10
131.7982 18.126583 4.6976066 10.5
132.08168 18.633823 4.5957422 16
131.91426 18.789171 4.5771151 18
131.63617 18.770506 4.6613874 17
131.77972 18.976776 4.6133614 11
129.8636 17.287973 5.119729 5
131.07112 19.334358 4.7083111 8
129.56763 17.740877 5.1803193 24
129.65843 17.972311 5.146203 9
130.91833 19.911055 4.7242436 12
131.15991 20.411139 4.6361103 9
130.19981 19.040379 4.9558325 24
130.25359 19.338699 4.9286895 24
130.45807 20.019476 4.8440123 1
130.56651 20.633959 4.7872853 7
136.84492 12.63069 3.9028046 42
136.14546 11.822073 3.9825754 16
135.94395 11.808208 4.0453782 12
138.73483 18.674454 3.2161393 30
138.49602 18.426918 3.2664406 19
137.79865 17.537123 3.432354 13
138.09819 18.130796 3.3465943 11
134.93864 13.387627 4.3357768 4
135.16664 13.821136 4.2042217 5
132.88818 10.42639 4.9052229 20
134.05188 12.439514 4.5600758 2
133.21028 11.230888 4.7365246 8
133.67116 12.425245 4.683392 10
133.83403 12.593726 4.6113439 10
130.16743 6.7884655 5.6528263 11
132.34862 10.568141 5.0668364 8
133.3958 12.53588 4.7590771 7
132.09636 10.534483 5.1504292 14
133.49765 12.872917 4.6863899 13
131.88887 18.117218 4.7979913 15
131.95854 18.228468 4.8164082 13
132.0605 18.537903 4.735723 16
131.87657 18.593592 4.8117962 14
131.99368 18.682673 4.7687278 16.5
131.17725 17.664064 4.9265413 9
131.68005 18.486649 4.8497849 13
131.63403 18.602301 4.8274469 19
131.89944 18.738323 4.7689161 6.5
131.97452 18.824131 4.7811446 20
137.45576 28.535448 2.9023719 16
130.81349 17.231806 5.0728388 11
130.98387 17.733006 4.9906025 2
131.14725 17.853098 4.976037 8.5
131.13931 18.002371 5.0211153 2
130.63359 17.479746 5.1225543 13
130.85475 18.179651 5.1260695 3
130.06615 17.097485 5.2041821 10
131.64468 20.012381 4.8598475 5
130.00096 17.458059 5.2074232 24
130.20955 18.109148 5.2446351 18
130.06212 18.478369 5.1492782 12
130.14363 18.638712 5.1191134 3
131.20299 20.549465 4.7546048 11
131.28722 20.628174 4.7283134 11
137.60716 31.702328 2.8162842 15
129.26436 17.57761 5.4283609 16
129.47906 17.767944 5.3545041 1
130.3177 19.245127 5.0484371 40
130.77309 20.136589 5.0292993 3
129.67511 18.69458 5.260478 3
130.58553 20.324261 4.9426494 8
130.73343 20.314316 4.8986588 14
130.88383 20.545538 4.8493781 8
130.90315 20.657309 4.9902544 27
122.40911 14.351888 7.2531977 2
121.41785 90.658913 3.9338713 52
137.37964 12.48875 4.0111704 28
137.5062 13.265032 3.854167 17
137.63879 13.384127 3.803911 21
136.5717 14.800308 3.9888172 27
136.70847 14.926872 4.0155888 19.5
138.91844 18.85199 3.3779285 28
138.51892 18.489067 3.442523 13
139.02377 19.526791 3.1405613 19
139.04251 19.686998 3.1338649 40
135.55725 13.856961 4.401794 26
135.34998 13.729291 4.3229523 17
135.4157 13.941283 4.41959 11
133.19566 10.481232 5.0665002 25
135.13152 13.586662 4.4092169 15
134.41745 13.0102 4.7255621 12
134.04124 12.567429 4.7366338 11
132.32825 10.523489 5.3445802 1
133.68947 12.826617 4.8084292 18
138.78923 28.185732 2.9810772 27
132.13246 18.254089 4.8887482 1
132.17397 18.270994 4.8678255 16
131.96051 18.163847 4.9404192 16
132.10461 18.50181 4.851625 17
131.40739 17.419554 5.2032962 6
131.45374 17.716763 5.1645222 16
132.02594 18.780031 4.9902172 2
131.29501 17.612127 5.1552019 11
131.27953 17.741928 5.1379027 13.4
131.82791 18.58157 4.9092174 18
131.87341 18.819645 4.9854255 19.5
132.05713 18.95187 4.9536943 37
130.9128 17.616257 5.2261777 15
131.44949 18.347624 5.0728493 4
130.63144 17.368137 5.2420316 14
131.02541 17.909266 5.2711463 21
131.54019 19.987 5.0131307 9
130.40317 18.457733 5.2936368 2
131.58893 20.557018 5.0348511 13
131.40723 20.705149 4.9694343 16
118.89041 90.659927 4.6379189 53
135.19864 6.2248268 4.9281654 10
135.45047 6.5590391 4.8094792 18
139.17389 15.813519 3.5811954 32
135.28413 9.667758 4.7979231 10
139.05411 19.171755 3.3517437 36
139.55591 20.063999 3.2723231 22
139.76202 20.536077 3.24331 21
139.97035 20.824902 3.2149847 16
135.48013 13.631174 4.4690924 5
135.7207 14.298034 4.564918 19
134.66666 12.924857 4.847734 15
134.81544 13.045132 4.7777328 6
135.25146 13.943732 4.6119618 13
135.41946 14.080085 4.5379524 9
133.95808 11.971486 5.0676532 12
134.03262 12.351482 4.9708619 18
134.15959 12.71084 4.8620043 10
131.79561 8.9340487 5.7066188 11
139.77318 23.237282 3.0114825 46
133.13377 11.860539 5.139647 8
129.77473 6.7615767 6.2005024 10
132.8208 11.862152 5.2431488 14
131.4155 10.154799 5.6893744 4
116.00166 -10.607929 10.254234 13
139.18648 31.325312 2.9342761 22
131.14581 17.525742 5.4354949 19
131.27661 17.843931 5.3503561 14
130.73621 17.270069 5.4360132 1
131.17113 17.729937 5.4120951 3
131.23631 17.787277 5.3740997 27
131.19344 17.968027 5.2913284 18
132.11102 19.620546 5.0679011 3
131.11873 18.072615 5.4354801 5
132.49754 20.994802 5.0269408 0
130.66927 18.103676 5.4334064 9
132.1739 20.72044 5.1021595 0
131.1953 19.622494 5.2461681 17
131.72403 20.48954 5.1117783 4
131.68254 20.965939 5.032908 3
131.83823 21.054056 5.1318846 2
138.43309 11.275167 4.2430725 17
137.86473 11.212502 4.3868952 30
136.39838 9.2668715 4.8494101 15
139.36844 15.634478 3.7981455 37
135.8297 9.556694 4.9597678 5
136.63058 14.673117 4.4670839 31
136.84042 14.972798 4.3671255 6
140.81345 22.000544 3.1063478 20
136.17508 14.364748 4.6163912 4
139.55331 20.150232 3.5054657 24
139.71761 20.577366 3.4944742 18
140.70282 22.139236 3.1261399 23
135.80685 14.019996 4.6218796 15
135.99319 14.216101 4.5330997 20
135.20224 13.361225 4.9441795 7
135.70479 14.229265 4.7371554 20
135.7233 14.365606 4.6928883 15
133.75037 11.002098 5.321291 9
134.61336 12.819744 5.0737319 3
135.44684 14.11785 4.6712432 2
135.25618 14.233047 4.8251638 3
132.36646 10.146735 5.6608686 18
132.45132 11.819839 5.5994921 8
131.54817 10.662865 5.8603945 13
131.94153 11.420088 5.6090679 7
132.06572 11.679364 5.7619715 11
131.46773 10.993567 5.8378282 8
131.00308 10.842102 6.0228729 13
140.49271 27.90127 3.0118599 56
130.79494 10.928148 6.0830336 21
132.39386 20.782951 5.1621132 13
132.6627 21.118999 5.1293983 21
131.97559 20.382088 5.2558155 2
131.79477 20.799984 5.2607059 0
131.85352 21.016176 5.2693977 0
130.87576 19.51038 5.6472683 3
119.52043 14.038058 8.5892506 5
107.15948 100.52072 7.4153214 63
139.05478 10.948973 4.1664162 20
137.92213 10.846365 4.4473438 38
139.90392 14.145828 3.9770029 24
136.09192 10.880433 4.9048491 16
136.26974 11.009171 4.8288965 39
